-94.438576 -262.151245 -93.358589 
-51.774933 -210.757080 -313.729828 
13.703794 -236.649826 -316.063599 
-4.099588 -311.455872 -408.282593 
-22.079191 -255.537933 -1120.454346 
-0.362738 -66.610886 -679.614014 
-185.955505 -329.338440 -1268.574219 
-29.576183 -135.653198 -541.739014 
-0.968136 -75.799217 -768.592529 
-96.682877 -277.406433 -16.252247 
26.643084 -515.809326 -377.062775 
-98.360870 -398.576172 -857.080688 
-1.567568 -152.920731 -937.975647 
-37.056843 -219.045166 -169.206741 
-92.357681 -245.898270 -704.380371 
48.518250 -164.129974 -364.872681 
-78.990112 -290.371887 -6.242320 
-87.432701 -184.530258 -552.760193 
-7.967668 -168.452774 -943.163391 
-91.793190 -486.313660 -861.340149 
90.036728 -197.771133 -516.496704 
82.351372 -167.244125 -604.820068 
109.167175 -398.781738 -1040.136230 
-1.630976 -253.580460 -666.087524 
98.548203 -416.066864 -1015.115906 
40.231491 -322.876160 -337.111084 
-5.296266 -79.145828 -759.056519 
90.346443 -473.618591 -442.553406 
-12.836508 -306.740448 -320.745789 
-76.025230 -443.780151 -479.774994 
-43.806435 -543.801392 -777.115356 
-23.693014 -209.531158 -357.290436 
89.175461 -167.066544 -537.883728 
-25.931755 -258.679138 -1100.326782 
0.029562 -144.014587 -522.917358 
87.494240 -410.734619 -943.663086 
-67.731750 -347.116882 -782.346436 
-52.698910 -282.802734 -29.923897 
14.940379 -129.159409 -898.344666 
-95.964844 -278.432922 -689.173462 
-39.252159 -525.293457 -767.400146 
-115.688538 -336.350433 -386.436218 
-93.054634 -190.938583 -525.378418 
-111.672058 -349.112366 -789.602356 
2.267050 -171.013977 -991.213745 
-39.167309 -248.683487 -222.039413 
-60.233643 -224.060516 -218.193146 
85.682404 -184.573486 -546.455322 
65.378883 -321.086426 -319.775635 
-105.401794 -221.491791 -79.931862 
-10.239927 -115.735474 -750.866089 
-104.549637 -321.475067 -384.559509 
-1.046266 -194.234848 -997.265442 
-108.440331 -330.491333 -367.750092 
-149.958435 -284.508240 -23.898878 
-20.040096 -151.017334 -318.529175 
-66.507347 -265.773712 -722.453125 
40.381287 -137.013840 -501.201965 
-2.036363 -118.233467 -896.654907 
74.630157 -315.535553 -765.643677 
-11.493430 -152.037766 -346.339874 
-11.663967 -218.865067 -337.203735 
-13.322845 -243.218582 -315.781281 
-117.310028 -299.751038 6.920115 
-65.918716 -160.178131 -462.695465 
-74.283501 -359.198364 -44.322655 
-17.364571 -86.531975 -759.270996 
55.332401 -193.783203 -410.169586 
64.112518 -498.198029 -413.817841 
-10.901417 -247.948654 -295.235718 
-275.251312 -413.144165 -1099.275269 
65.618454 -343.596893 -785.133484 
58.411842 -525.743896 -379.496002 
-147.357849 -369.942200 -581.028076 
51.192081 -94.791565 -889.819946 
-10.968615 -304.039185 -352.822662 
-2.816175 -136.808517 -433.678955 
45.920753 -88.213585 -920.724915 
4.381069 -257.684509 -969.006104 
98.427567 -337.286774 -768.660645 
-128.392242 -313.520691 -582.291260 
-135.491974 -453.255432 -601.850586 
-124.185318 -350.036926 -25.294941 
29.687168 -130.406067 -794.346497 
-146.215607 -445.415649 -617.815674 
-68.797615 -282.945007 -402.073730 
80.451126 -237.214813 -903.699585 
48.649040 -225.711395 -390.578888 
-90.375954 -204.533798 -933.996216 
14.748449 -138.048019 -468.871307 
72.247513 -355.815765 -759.961670 
-98.320381 -471.962219 -499.753784 
47.459946 -222.667908 -331.192993 
-53.463169 -285.263275 -331.998169 
-71.934067 -190.925919 -613.442505 
-91.806900 -376.433167 -20.970215 
-34.747334 -158.936203 -451.248474 
-75.908150 -456.210754 -591.617676 
-113.794067 -276.726990 -495.121094 
96.212357 -364.512604 -504.086823 
-100.546066 -234.962143 -86.328423 
80.548569 -395.682373 -779.702515 
-84.733269 -389.398712 -54.224483 
67.462860 -207.721237 -932.093933 
116.688843 -280.060242 -569.607422 
83.073967 -314.887238 -454.322937 
79.863693 -455.375732 -460.991882 
-20.268948 -250.527878 -954.870605 
-45.054741 -122.098434 -913.123169 
81.334198 -288.744141 -795.060547 
13.939612 -232.938538 -338.329559 
-64.270294 -175.080627 -445.564880 
45.872345 -235.461868 -307.765503 
127.455574 -285.277313 -557.244873 
59.144974 -310.701691 -350.097748 
-65.528961 -216.487061 -192.810303 
43.666416 -221.574188 -307.481262 
121.318039 -322.180298 -535.269409 
-158.686676 -286.402039 -9.873451 
-134.117477 -266.752655 -510.883423 
-104.481163 -251.067947 -571.785034 
69.493004 -473.018463 -983.509888 
-2.408483 -91.563843 -422.492432 
59.253983 -213.917877 -361.372040 
-130.185760 -349.688660 -601.556458 
75.296707 -171.652466 -612.352905 
51.293732 -215.784912 -338.721222 
-111.034561 -382.069611 -83.916763 
64.951050 -518.246826 -387.354645 
-17.343521 -150.071136 -951.803162 
-82.082275 -344.444092 -756.390747 
-14.174858 -146.375137 -479.843719 
-104.816437 -249.358398 -557.527588 
12.663939 -120.179390 -862.817139 
84.185570 -263.240631 -860.278687 
77.015518 -160.944946 -571.227539 
-41.590179 -248.152893 -987.444824 
-129.177948 -310.575684 -1248.007324 
-87.338425 -253.050964 -381.368774 
65.990456 -223.663376 -660.447144 
-151.457962 -257.626892 -562.492249 
-93.174316 -434.004517 -888.328003 
42.265797 -510.395691 -392.405487 
-18.683220 -201.345261 -378.887726 
-82.017311 -253.254395 -356.379120 
82.447960 -192.807770 -411.028870 
-22.454893 -124.843399 -489.099182 
-39.114353 -230.938385 -278.984558 
89.748116 -366.819061 -754.537720 
110.553246 -528.039734 -343.343628 
-0.297195 -164.412277 -430.091919 
-154.455261 -337.934814 -15.893873 
-112.579079 -299.756989 -381.916809 
-110.134247 -296.790833 -722.748901 
-76.705688 -216.469360 -116.230751 
32.570953 -488.033478 -460.903625 
-56.794518 -237.468521 -355.767029 
46.815060 -317.159546 -349.383728 
24.598227 -142.147278 -464.393188 
-10.650381 -128.428772 -499.977386 
-17.110392 -69.310387 -708.257996 
-8.179746 -132.829391 -826.831116 
-142.563339 -357.370087 -588.162598 
68.014000 -382.300415 -811.142151 
39.677212 -513.475769 -406.929199 
71.844025 -423.885773 -992.830017 
-147.113327 -377.246887 -35.724442 
88.131287 -331.522400 -423.874695 
-56.306801 -195.514313 -413.089294 
103.170708 -417.442078 -1034.300781 
-138.620865 -444.618683 -582.466187 
-145.943466 -332.574921 -19.964897 
-113.750427 -294.122253 -468.302277 
-5.822871 -122.324982 -788.687134 
32.741020 -127.033295 -784.782043 
8.812048 -138.167786 -517.104919 
17.085457 -83.750549 -576.336182 
-126.950211 -407.142090 -11.192485 
118.387589 -288.402954 -521.900085 
-103.863625 -288.725830 -45.339462 
57.444096 -137.444122 -514.006897 
-24.615007 -237.142059 -231.056717 
-112.651199 -450.773254 -587.752441 
5.071981 -115.795685 -879.333374 
-126.774620 -332.829041 16.895681 
-37.544662 -125.329636 -692.073364 
-87.952370 -198.166824 -944.218323 
73.789986 -169.844543 -567.321472 
-109.732033 -448.338318 -572.315918 
-128.161911 -344.725952 -12.075317 
-30.909344 -249.559372 -971.840088 
-90.467819 -348.752502 0.332289 
6.214981 -219.469116 -916.199524 
20.931454 -130.821503 -945.451782 
3.679894 -51.112423 -714.126282 
49.053467 -189.015961 -937.924500 
-6.426885 -325.569763 -461.165405 
-88.310143 -348.656555 14.491936 
-90.391220 -242.138168 -88.522293 
108.372162 -377.393860 -484.207397 
-58.538544 -305.576630 5.305588 
-89.342735 -160.986816 -433.637146 
-131.987244 -245.470673 -521.821960 
5.576645 -148.813690 -919.582520 
-120.223068 -480.556396 -537.985657 
91.029083 -273.782227 -504.193024 
-12.052250 -109.331902 -550.321960 
-92.891510 -473.478699 -857.862793 
-138.367828 -357.827515 0.920517 
-103.392975 -466.508301 -910.758911 
111.674095 -301.485748 -548.528992 
69.400375 -328.301117 -770.450439 
-5.680895 -105.129280 -792.910583 
-122.197716 -276.456909 -586.233032 
-144.443436 -310.796417 -68.682632 
90.742760 -348.476044 -734.896301 
54.946083 -528.494934 -388.553436 
-51.938454 -268.477753 -1153.090942 
-39.093979 -241.128220 -246.735092 
-134.776230 -340.497375 -587.489319 
-42.702030 -147.313171 -926.323792 
80.996338 -161.440872 -535.639038 
-79.394775 -475.743958 -511.841492 
-8.477125 -132.745453 -399.877686 
-141.250595 -299.201996 -588.476685 
0.316641 -91.283257 -557.257996 
-65.606949 -147.271637 -557.945923 
80.738976 -491.140228 -964.207703 
54.757473 -193.979218 -944.633606 
-24.129896 -134.432159 -838.007385 
-220.073639 -456.856781 -1023.941589 
-70.005890 -242.887268 -798.497803 
-84.312271 -364.078888 -49.019791 
39.300461 -305.335449 -328.815094 
-107.805893 -483.709015 -866.040833 
-72.901703 -239.955872 -62.864433 
4.663462 -123.835419 -808.753540 
-81.392143 -241.544006 -360.219543 
-274.133026 -405.277405 -1123.685791 
36.500191 -191.094360 -936.601807 
-95.218048 -301.093689 -1220.485840 
-112.962791 -255.661911 -542.044495 
-118.258530 -277.218933 -347.156372 
61.477928 -312.030945 -319.107849 
-76.966797 -235.617126 -837.034302 
-92.270699 -390.989868 -859.768860 
-5.328650 -165.328842 -910.323425 
-8.529130 -322.905640 -471.394409 
-51.129223 -206.661591 -178.479858 
5.497149 -180.246933 -419.889465 
56.830223 -142.175934 -395.486755 
-131.811508 -207.760513 -569.638855 
-95.549980 -265.244934 -724.693848 
-58.129726 -128.379105 -404.482819 
-93.117744 -276.473083 -74.919518 
14.029927 -472.523834 -460.548767 
-110.473389 -540.056030 -759.911560 
-23.195436 -207.738190 -922.057556 
80.834328 -511.694977 -391.074402 
19.283384 -113.130608 -676.418030 
-57.975826 -81.413406 -909.685608 
-15.283677 -115.924164 -578.933899 
-155.070984 -372.175720 5.866636 
-82.018822 -224.916656 -106.659210 
-51.219036 -294.344666 -24.227562 
-3.110993 -96.981743 -507.841156 
85.989159 -374.850189 -790.123535 
42.430843 -255.285706 -375.227875 
-14.328327 -161.179688 -906.243408 
-117.425270 -535.062195 -769.673828 
-56.730431 -327.247528 -57.175667 
-10.908918 -211.102081 -1042.300537 
53.479065 -477.828705 -976.891907 
-98.665901 -247.393219 -87.415207 
-147.182877 -261.054871 -587.434875 
-60.092293 -101.566315 -890.729126 
79.328133 -502.629120 -397.735199 
103.589142 -280.439423 -534.310669 
-78.094406 -380.961548 -806.889954 
-6.568086 -255.335663 -1079.478271 
-76.701416 -388.206177 -829.215149 
-60.911388 -217.555511 -321.673401 
-80.728668 -401.310120 -846.745850 
-151.855133 -444.579803 -608.002380 
-6.250392 -311.172974 -590.375793 
-11.347769 -240.056198 -281.747192 
67.952721 -151.047852 -411.085083 
-119.120148 -315.877930 -58.946205 
-6.274214 -316.849182 -384.158447 
-41.275734 -185.113174 -402.231171 
-79.531410 -249.246918 -122.200638 
60.785564 -135.650757 -609.593384 
-1.308832 -199.148590 -394.153778 
-7.616083 -251.088989 -952.374023 
85.231613 -427.731995 -481.424622 
79.820709 -413.753357 -1008.229980 
78.108109 -335.872192 -407.637878 
8.535965 -245.634247 -285.791748 
-46.631355 -532.029480 -767.896545 
-27.792852 -256.286285 -270.591309 
-1.974015 -137.260559 -885.056519 
-3.550850 -131.191757 -836.417603 
-33.832088 -164.680222 -918.223328 
-14.500465 -79.421555 -650.946411 
-22.014643 -211.013031 -1016.572632 
-92.476952 -465.682495 -489.856384 
-109.974426 -238.472015 -572.342163 
-16.832567 -249.680984 -244.350693 
-70.721725 -137.325470 -418.551910 
-45.828770 -298.473663 -313.813812 
-116.771255 -535.094055 -790.552612 
9.935089 -94.462692 -599.888000 
87.227943 -254.162903 -482.064331 
-132.920029 -290.608643 -475.845612 
29.491358 -155.656631 -325.351532 
-219.244019 -442.243774 -1040.429810 
5.500910 -81.315094 -719.922180 
-64.717300 -541.660095 -754.244263 
-126.720009 -396.365906 -11.936996 
-105.891708 -277.294373 -9.878877 
-135.710220 -306.977478 -22.731085 
-90.965485 -360.334839 -1.635584 
45.843842 -177.597443 -357.519470 
-86.381966 -265.136688 -83.628670 
10.290774 -159.334595 -957.477478 
80.278748 -554.017212 -919.819031 
86.893913 -399.657562 -954.371338 
0.198897 -167.002045 -441.786041 
-143.392166 -242.494080 -541.308289 
-45.191566 -532.045105 -778.091370 
-137.965668 -213.201767 -578.002930 
3.337097 -134.575424 -830.090088 
-138.174622 -243.003311 -593.408081 
-14.619766 -218.894547 -312.730652 
-15.402262 -127.530609 -842.979309 
-102.918861 -514.333801 -824.971741 
11.565351 -116.375923 -895.212891 
97.827385 -535.256836 -369.180450 
-44.927586 -215.130157 -180.649902 
-18.934341 -106.535500 -542.618896 
-35.477421 -246.605835 -112.519516 
-75.654076 -317.615265 -705.966248 
87.747993 -261.050446 -318.511780 
103.269554 -562.908203 -930.855164 
34.808212 -170.993240 -923.269226 
22.172535 -123.339088 -929.394897 
-14.570906 -222.423706 -301.468506 
-150.370850 -381.139679 -1.585791 
-120.796600 -310.850037 -45.022583 
52.532532 -316.173004 -320.756042 
79.616608 -225.762939 -922.553589 
18.369360 -508.972931 -346.379669 
-124.600677 -285.478577 -73.592133 
-87.604111 -528.836731 -734.024292 
-32.242886 -149.419098 -897.260559 
84.434647 -276.487732 -820.931885 
-2.512102 -101.055038 -828.851990 
-98.435074 -390.264160 -73.765472 
100.660858 -313.684265 -457.638214 
77.428459 -499.526794 -970.731689 
-89.690033 -227.366989 -118.812653 
-15.339350 -257.222107 -961.481628 
43.315147 -180.746735 -346.477783 
90.724731 -396.746765 -913.337524 
74.199097 -313.131531 -317.051453 
-108.472862 -296.491180 -394.025940 
-121.708420 -226.674866 -570.803711 
-0.646934 -128.637329 -531.239929 
-82.544159 -352.735657 -770.289246 
-74.838104 -350.140411 -25.528326 
-7.971821 -275.074585 -645.554932 
-46.345798 -142.187302 -915.592041 
-83.932472 -466.568115 -870.003113 
37.776573 -190.697067 -957.346313 
-146.266800 -475.499176 -528.766296 
95.948860 -512.953430 -970.516602 
-153.878220 -364.849060 -36.682686 
-136.357895 -280.452332 -59.876678 
-5.915937 -319.428772 -413.820648 
94.148071 -526.315918 -966.207886 
96.013832 -282.740356 -507.807312 
74.589264 -483.333893 -420.590363 
-73.782990 -345.542206 -57.263302 
105.702530 -352.121674 -749.952026 
-19.279854 -155.317703 -913.748474 
24.576111 -182.774887 -395.720123 
-26.753510 -278.099792 -1122.613770 
-96.235870 -270.234680 -84.465240 
73.356827 -263.990234 -350.598206 
-81.841171 -360.746155 -814.521973 
-57.135845 -287.725067 -342.522217 
-96.360565 -294.452087 -701.419800 
65.117325 -463.309082 -1004.077148 
-15.576641 -111.182022 -591.536438 
-142.241119 -395.754242 -588.072998 
83.407349 -323.322235 -441.798889 
-24.451422 -172.350189 -303.974792 
-108.663521 -341.346283 -782.399353 
83.159409 -462.905457 -984.201111 
117.535019 -396.660553 -493.023712 
81.728889 -301.095490 -815.766479 
91.483856 -558.612793 -890.670105 
-116.823479 -363.565826 -72.280495 
4.983242 -247.349762 -1076.234253 
-198.634705 -328.781433 -1249.942383 
-87.769882 -316.841675 -740.809937 
109.342300 -346.067078 -793.876587 
-68.130135 -511.780579 -832.221252 
-10.901742 -230.293106 -276.293640 
-12.929111 -95.852829 -646.836426 
-79.520157 -229.779190 -139.271210 
-106.168808 -453.497986 -912.823364 
-150.620285 -347.338165 -30.003799 
-76.670418 -184.592590 -596.442505 
-21.983788 -264.705078 -1093.248047 
-90.481369 -235.870972 -488.413239 
-84.755409 -532.644775 -816.603394 
-2.195400 -50.439980 -705.747009 
13.610142 -108.471199 -744.112061 
11.882020 -104.353729 -827.428589 
32.668297 -121.200691 -931.569946 
-139.586731 -300.187714 -84.525391 
-75.120346 -157.894073 -568.492920 
-78.515747 -217.096283 -830.213135 
-134.046158 -271.540588 -501.872925 
-6.516836 -256.822754 -290.346466 
-108.423859 -371.112549 -78.834930 
-94.426208 -345.081451 -8.218272 
-73.897095 -190.770172 -388.659302 
-140.035522 -392.613525 -6.662015 
-4.249338 -196.082687 -1017.794250 
-107.622940 -261.409119 -107.339172 
-73.934425 -207.873657 -869.836548 
52.345398 -242.218048 -328.605530 
-120.107018 -382.466675 -10.776739 
-122.138733 -403.654724 -2.043042 
-8.188233 -96.368752 -683.689087 
-273.600464 -412.360779 -1115.649902 
80.333069 -478.482452 -429.369141 
67.300011 -284.185974 -824.325806 
-119.073959 -253.554077 -517.940125 
33.549561 -255.797852 -984.555908 
-6.131244 -228.736816 -319.403564 
-139.719849 -205.613068 -586.968384 
-118.400787 -225.725464 -39.685890 
-15.471129 -224.654724 -216.799866 
-120.904343 -238.538742 -572.353760 
14.306761 -142.208435 -901.788818 
-37.400276 -265.285400 -1162.346924 
6.556909 -139.741272 -859.589539 
-39.794273 -108.492119 -931.118408 
-126.484947 -373.193604 -593.165894 
-10.564272 -81.980583 -789.740784 
-130.365311 -301.925903 22.958481 
70.297745 -277.925446 -424.902649 
83.877106 -478.885498 -994.749634 
72.591660 -430.979401 -1012.563965 
0.461648 -95.233765 -690.004883 
107.851982 -436.907257 -483.617279 
51.911720 -514.723633 -402.939758 
-149.233627 -311.876160 -1261.353027 
-86.685455 -291.505981 -702.900513 
-85.869217 -210.853058 -401.716492 
-134.569290 -261.020996 -525.362366 
92.878181 -321.399628 -453.102356 
77.770714 -536.173767 -960.454712 
-138.377243 -323.381439 -69.415604 
-116.651642 -272.449615 -520.438232 
61.038383 -141.227631 -404.839264 
-70.376686 -277.562195 -79.309059 
-71.406876 -238.284882 -134.362976 
-8.488675 -232.698502 -253.907318 
98.481873 -553.959778 -874.369446 
-83.626060 -173.015930 -587.023010 
-2.755518 -158.404572 -417.622406 
95.198891 -304.141541 -502.041595 
69.983192 -188.713318 -382.033386 
-85.939598 -208.839081 -924.482422 
-22.292004 -229.603882 -341.327118 
-167.209229 -313.538635 -1260.133057 
112.717590 -537.672607 -332.020599 
6.701651 -515.732666 -331.535461 
-75.473770 -386.944092 -840.299255 
-121.266441 -353.362640 -73.627708 
102.074448 -342.128998 -748.305969 
66.033714 -147.182205 -518.897095 
121.628189 -549.840454 -909.301758 
-70.483841 -346.399506 -757.982605 
46.448128 -206.818817 -336.240112 
106.528107 -351.947388 -522.099731 
-36.278252 -163.012817 -420.808136 
-3.512891 -306.706299 -383.559082 
-73.035477 -288.627319 -1185.551758 
-58.745480 -170.246017 -437.458801 
26.421078 -516.603210 -362.665710 
-89.525429 -290.753265 -381.676666 
-60.808624 -273.151489 -31.690058 
57.542816 -224.386383 -338.431274 
41.464401 -150.610901 -446.935974 
-9.822550 -244.209213 -258.371887 
-0.909108 -313.490845 -466.833923 
-75.688889 -174.303940 -510.202637 
99.782578 -426.821381 -1035.922119 
-87.324997 -209.583008 -565.302917 
84.012932 -272.603210 -852.678955 
77.787231 -322.635864 -745.196045 
81.262672 -387.032501 -789.842590 
19.787634 -182.046310 -944.050598 
-94.803581 -223.754395 -507.957062 
-110.301331 -329.057800 -768.061523 
-126.200043 -340.887146 -96.436356 
-29.832735 -232.588074 -271.849823 
-95.801300 -274.427216 -510.247223 
92.136589 -215.110352 -493.031372 
-73.706909 -219.234741 -137.216080 
98.987434 -323.942139 -741.599548 
-133.334290 -261.792908 -536.730347 
87.053734 -283.948517 -517.142395 
40.106293 -310.073273 -347.491455 
97.487877 -529.525879 -381.662537 
-94.924240 -242.494568 -141.775375 
-3.370098 -132.557602 -505.774109 
-4.038508 -211.410614 -333.618317 
-47.851151 -245.165833 -192.261887 
-108.911285 -416.024780 -885.470642 
-73.751358 -195.425720 -935.349060 
-34.375664 -154.355072 -921.495361 
97.847397 -434.837036 -1026.406494 
-87.017471 -396.201233 -73.800980 
104.091171 -527.920776 -352.577332 
-79.448669 -282.143921 -727.821228 
4.167875 -91.296890 -578.052124 
55.922215 -357.128906 -770.815308 
-47.824814 -122.373215 -373.743652 
-73.940521 -477.775391 -857.290527 
-138.765930 -235.500305 -581.776062 
-57.107937 -453.104309 -592.179565 
-136.176773 -428.497620 -619.635498 
-86.013229 -222.285400 -366.054230 
-59.564926 -191.377258 -940.409424 
8.091404 -158.805084 -967.435791 
-25.868988 -245.648788 -110.274506 
-153.475677 -319.074036 -1254.483032 
-141.465866 -305.860718 -596.960876 
-113.004562 -340.404022 9.743155 
50.425678 -460.883484 -988.616760 
-45.879791 -264.158875 -252.044128 
14.179071 -100.846542 -655.734253 
-3.497863 -113.804016 -568.473877 
-19.887001 -208.228302 -296.457977 
-139.466583 -241.458908 -555.572510 
-72.059074 -160.385452 -401.309326 
-68.905602 -332.531769 -747.562500 
70.548965 -252.799713 -852.488525 
-140.722992 -419.431519 -595.271118 
-9.186118 -135.055405 -473.745880 
-22.768536 -124.013214 -533.662720 
-78.212860 -144.492355 -433.021057 
-115.207901 -444.757507 -579.912415 
-12.914725 -155.192795 -959.600708 
-108.965866 -300.759735 -443.256805 
-39.046059 -274.336731 -1157.252197 
77.844986 -434.757172 -991.355652 
-132.025177 -322.955475 -78.392700 
-128.094879 -305.945953 -1236.996582 
32.375282 -204.884399 -937.280701 
-86.696159 -235.221680 -449.162903 
-41.568066 -236.967484 -986.952454 
64.018921 -209.288361 -368.884552 
115.485886 -343.188660 -523.440491 
-273.873169 -394.453247 -1177.406738 
84.167236 -380.188782 -845.768250 
-72.225578 -227.147598 -157.507217 
-88.758057 -444.704529 -593.114746 
-83.986359 -236.289093 -60.130089 
-84.075951 -319.378082 -719.528748 
-144.614288 -271.974792 -37.242893 
-132.101685 -265.580688 -550.209167 
-103.541992 -277.898956 -714.774902 
-66.793884 -308.959290 11.573898 
-76.215477 -231.659622 -357.111206 
-79.469795 -317.160614 -28.613987 
-90.576218 -400.005432 -872.899170 
55.282974 -529.941589 -959.071777 
-15.135836 -91.442001 -774.847168 
-117.538849 -310.834808 -354.906372 
102.188164 -409.017395 -962.546021 
83.692780 -261.508545 -444.621857 
-123.589943 -340.359467 -84.983223 
-6.816937 -239.483658 -941.315552 
-74.538216 -238.958954 -144.846085 
12.638218 -122.852890 -814.656128 
86.281609 -556.075134 -911.334778 
-14.761364 -171.509613 -380.120911 
-53.275818 -194.597748 -393.260468 
7.095614 -126.882820 -493.602631 
38.995533 -141.587402 -355.021759 
-16.258524 -113.148148 -535.140381 
91.763916 -273.933014 -318.414276 
-16.864973 -181.238800 -356.369873 
-100.134857 -405.934692 -868.392334 
110.061775 -382.329041 -843.914978 
89.791405 -310.668823 -477.228424 
119.099396 -554.756104 -917.493042 
94.973900 -484.066315 -463.066254 
-26.735174 -155.246811 -954.603638 
76.547760 -281.401581 -320.394287 
-59.665878 -177.617218 -365.031433 
-123.731674 -288.116333 -588.532959 
-52.482643 -163.336517 -460.212036 
13.923664 -514.082581 -354.336548 
4.352380 -147.547287 -869.334534 
-1.753199 -155.957413 -918.869812 
54.625763 -333.765991 -338.929352 
110.944763 -428.728973 -475.174133 
-77.909241 -534.914917 -794.215271 
-65.560631 -531.086182 -832.238586 
-87.906509 -371.616638 -12.160438 
-108.269905 -372.908661 8.251756 
87.215820 -404.819977 -976.048401 
-75.238297 -195.713150 -951.905090 
34.485596 -147.826614 -348.644165 
-53.818645 -276.891663 -1170.528564 
77.981972 -310.240570 -410.425171 
-65.188553 -327.554962 -51.625282 
105.755371 -386.373291 -852.252930 
78.723526 -152.903198 -596.010498 
7.870219 -108.228653 -679.929810 
2.292310 -174.143631 -433.470551 
-13.903870 -206.993774 -314.335052 
-74.607529 -212.378708 -378.060699 
-113.547714 -326.418243 -7.046850 
20.599911 -98.453041 -844.346985 
-112.840393 -280.785248 -1.335495 
32.375473 -493.070557 -447.371552 
-53.422482 -199.138687 -318.683411 
65.559494 -423.810425 -1003.293274 
8.374420 -174.178955 -384.365112 
-11.431327 -97.229965 -556.756226 
105.254669 -446.928406 -471.344513 
72.509842 -313.329468 -336.912903 
2.087488 -324.823364 -551.492737 
-64.462120 -294.041016 -1185.282349 
-97.286667 -231.962204 -362.843018 
-107.205841 -474.300751 -875.310730 
-23.238701 -151.317535 -464.234985 
79.881157 -257.376343 -884.012634 
-32.721096 -122.696114 -568.386169 
-23.624662 -240.435455 -198.618774 
-18.598841 -194.853195 -345.067505 
-150.523071 -362.022644 -597.109497 
-44.427078 -220.471466 -219.791718 
-109.077423 -316.559998 -406.269897 
-46.302547 -241.925919 -99.915741 
-5.129398 -86.081390 -676.370239 
-50.736015 -98.078979 -902.920410 
48.575340 -501.741211 -457.390778 
87.743881 -298.525024 -498.862183 
2.348804 -115.280647 -744.379944 
40.423660 -181.036285 -945.755249 
-85.168320 -169.304413 -428.180756 
-120.635788 -240.682892 -78.633728 
72.563942 -188.375946 -644.197876 
81.714699 -436.267334 -1010.270935 
89.588257 -290.931702 -813.318237 
46.335526 -154.763504 -370.169525 
-117.673531 -350.326538 10.689816 
17.650314 -79.196220 -706.168945 
12.283669 -81.820831 -625.558960 
-207.294449 -335.408752 -1259.748657 
20.965837 -141.215759 -931.619507 
49.108875 -78.821648 -915.620239 
-253.365112 -415.966431 -1080.173096 
-61.693909 -249.810287 -123.579521 
-73.931023 -472.597290 -867.822998 
51.705185 -221.048859 -928.957153 
-13.621183 -148.952332 -499.258423 
-103.254951 -337.487457 -27.590479 
90.611069 -325.890411 -403.920349 
-53.625221 -285.498871 -1191.879883 
-79.354111 -245.505463 -710.452515 
-87.312706 -524.941895 -804.581299 
14.065175 -140.890411 -869.560974 
-83.197289 -208.920944 -913.336426 
28.113871 -264.797089 -987.484985 
-24.166313 -245.527481 -312.291290 
-83.723236 -537.080627 -721.832703 
-139.630844 -367.973145 -16.380032 
-5.705554 -176.183014 -444.010620 
16.189428 -112.724968 -711.880310 
9.735967 -161.863342 -445.118225 
108.787659 -365.379028 -492.505188 
114.822334 -276.119690 -560.368530 
-76.001099 -180.964828 -621.133423 
76.729355 -310.301331 -328.513214 
89.648880 -489.130615 -973.682983 
7.148029 -207.956512 -1017.451294 
-12.858250 -193.601440 -986.696411 
-35.177872 -125.508362 -680.388306 
-4.340349 -100.689972 -623.817871 
-109.153076 -466.444061 -894.803101 
-8.838243 -107.519485 -538.540588 
28.698309 -273.957275 -991.861084 
-75.396912 -330.852783 -724.347412 
-200.111496 -330.121979 -1264.973022 
-69.263054 -231.026611 -851.324219 
-117.141022 -383.027832 -75.634819 
51.550926 -277.101990 -321.208679 
-51.255699 -243.062439 -214.971237 
73.080627 -270.978882 -860.815308 
31.780121 -185.115860 -306.469238 
-116.162598 -295.757996 -17.169222 
-11.724146 -260.447571 -215.171021 
95.901009 -481.870361 -993.071899 
-4.817843 -106.921700 -595.189392 
-125.885567 -385.219452 -599.165894 
-12.477320 -220.675171 -913.635315 
-43.223488 -217.542221 -197.473206 
70.392441 -546.535461 -885.415649 
-111.198059 -310.198090 -427.311005 
-276.626312 -402.468445 -1170.660889 
33.119240 -208.663300 -949.158936 
-71.949471 -469.181549 -508.200531 
-66.197845 -230.652832 -837.084839 
-41.814838 -236.889435 -233.494034 
-120.667641 -343.587952 -3.416350 
-9.509397 -233.318329 -264.119293 
-11.260449 -196.330750 -399.679260 
-76.537201 -384.239960 -816.115234 
-139.141663 -336.286011 -74.078575 
-63.660721 -237.514618 -386.246613 
-85.682579 -152.635849 -531.147827 
72.384422 -556.275452 -956.298706 
-64.466888 -281.387451 -71.305954 
-6.811397 -124.239594 -802.250061 
-23.509909 -240.817352 -243.430206 
-8.220708 -126.355400 -570.862915 
-75.329636 -314.917175 -38.083076 
-19.826391 -105.794106 -841.024170 
3.160658 -113.696503 -539.374634 
-53.558315 -255.076477 -281.642517 
-30.583563 -212.050827 -328.960510 
-96.642357 -249.777100 -387.173981 
-147.827148 -426.630676 -616.349243 
-48.840820 -164.387604 -435.963226 
114.468010 -282.508484 -532.334412 
98.890701 -342.895081 -784.820496 
38.015476 -302.504425 -364.544128 
-68.182877 -334.769653 -60.714500 
73.795448 -198.123962 -944.291504 
-31.658337 -166.696869 -944.826355 
83.553902 -217.317078 -333.097046 
-13.856835 -98.052551 -730.667664 
41.265484 -469.983032 -456.054474 
-9.721520 -126.716766 -944.662598 
-55.126625 -251.348846 -995.292603 
11.111584 -102.127434 -727.624573 
102.825905 -400.820435 -932.112915 
-76.778641 -484.415833 -864.903320 
-43.661858 -122.068466 -383.151733 
65.154243 -450.814270 -982.150085 
25.720894 -184.774658 -962.896179 
-42.067509 -174.366562 -917.762207 
78.086617 -282.131226 -804.396484 
34.195759 -151.628937 -337.746338 
-56.810272 -240.907196 -205.482193 
-20.692146 -261.567932 -289.568481 
-93.364746 -267.251038 -532.348877 
-41.367912 -231.123077 -195.665802 
84.856201 -296.140930 -788.409668 
-126.194809 -279.761658 -563.422485 
82.944473 -400.276367 -893.848083 
126.483963 -278.073273 -566.419128 
-87.927338 -282.818268 -488.634918 
-114.393532 -288.627258 -479.019623 
-111.410362 -404.505127 -868.675476 
-60.200836 -284.794800 -731.663452 
-13.567541 -162.691681 -441.923248 
-11.218924 -169.402969 -968.213989 
117.605591 -340.637726 -496.196228 
-79.054390 -310.427429 -20.807686 
-69.327065 -197.420349 -453.618042 
-60.175465 -259.683563 -225.070709 
-3.773004 -249.096252 -247.107727 
77.720955 -162.104553 -428.178833 
-75.883850 -349.285858 -795.679321 
-88.124863 -243.707092 -764.545898 
-181.783630 -324.171021 -37.977169 
67.647118 -555.426392 -898.375732 
-14.231321 -101.670837 -718.116821 
51.187851 -292.181793 -333.752106 
-69.792953 -289.515320 -732.760498 
24.970749 -277.888672 -334.798218 
-128.956604 -272.608337 2.123175 
-81.476074 -259.239136 -747.961365 
8.623514 -140.930664 -882.267212 
-142.803558 -231.553345 -560.942505 
-36.203785 -210.339783 -228.569946 
-133.806137 -291.740814 -84.071098 
68.740288 -537.054138 -896.655334 
26.116764 -242.329681 -991.533081 
-90.156609 -514.751831 -812.128052 
-140.104492 -292.067902 -102.463112 
-25.608957 -215.233978 -214.069565 
-30.421469 -149.210388 -442.941956 
68.966270 -468.327881 -970.023621 
25.521954 -127.890541 -803.427490 
-35.543594 -120.049728 -700.894592 
-47.206730 -216.168762 -954.604736 
-161.308533 -313.096100 -1248.819336 
-154.367279 -318.223572 11.264700 
-1.392506 -155.483215 -407.317596 
-11.449226 -318.272827 -526.971130 
-141.871460 -251.845337 -595.889893 
-1.106412 -145.957642 -859.832031 
-123.445572 -298.232727 -376.841888 
-14.484299 -260.937164 -240.426270 
-67.180916 -263.064240 -686.051575 
-5.929971 -251.704742 -1068.292236 
15.331209 -91.379425 -550.637329 
-97.721573 -198.994614 -364.543732 
-283.628448 -405.749268 -1131.484619 
80.519196 -528.379883 -386.365295 
-140.440506 -409.283447 -591.462891 
-7.565001 -115.521431 -862.245850 
70.603874 -228.097198 -377.918152 
8.786362 -144.943283 -938.660217 
9.323641 -140.318054 -482.989563 
87.835938 -419.821777 -973.593140 
-1.797002 -122.585808 -913.898193 
-1.968045 -236.719849 -1049.939575 
-99.877914 -243.333435 -105.546631 
28.570250 -170.993942 -310.583221 
85.906181 -539.917236 -955.286621 
-9.228387 -262.043732 -1098.985596 
9.666727 -88.448395 -765.283325 
70.735832 -254.792068 -887.917908 
24.334633 -176.328461 -956.754028 
-134.469009 -249.484894 -68.986130 
-76.376526 -249.781677 -779.609985 
-39.424965 -218.816666 -941.158752 
-103.846375 -460.437378 -887.639282 
-68.134048 -223.192917 -327.914490 
-99.974365 -302.889465 -397.651611 
-137.877457 -339.268463 -22.972198 
-76.312141 -327.039764 -43.556240 
-19.518408 -163.130890 -322.589172 
65.699295 -381.276917 -825.527954 
115.108421 -400.431030 -479.077820 
78.739410 -202.791962 -960.670288 
-117.739357 -329.256561 -400.475983 
-36.140575 -275.318542 -1126.684448 
68.835518 -329.270508 -758.505981 
-128.708115 -351.842712 -34.195305 
66.800812 -263.496338 -341.520538 
-11.323017 -151.505493 -372.427948 
-44.205631 -172.858047 -947.465942 
-156.188858 -288.802246 3.585584 
-1.486113 -112.076584 -485.512085 
-74.630234 -245.133148 -426.291626 
-35.062752 -176.893494 -957.269287 
38.551167 -532.805298 -335.661316 
-97.874878 -269.736145 -696.137939 
16.420286 -82.411476 -657.252075 
-7.797142 -130.968018 -908.773438 
-116.287369 -316.774323 -37.237549 
-17.555920 -117.198677 -523.766663 
-15.257976 -148.645615 -923.820618 
49.898010 -474.851349 -461.697906 
13.312281 -109.698814 -539.693787 
-76.981232 -379.042480 -69.863289 
-131.462585 -345.444519 -70.849037 
4.095327 -113.557831 -697.384949 
-130.589600 -237.367142 -587.994690 
0.475691 -80.813713 -547.925842 
-138.870712 -256.577057 -583.154663 
-116.997330 -315.560120 -6.574333 
-16.190559 -314.265259 -383.470795 
-25.941351 -169.131424 -969.155457 
-13.988081 -234.305817 -243.709717 
-161.492050 -306.526855 -48.933418 
-31.143927 -193.549316 -927.466309 
-104.480347 -471.213806 -537.156494 
73.640816 -386.697968 -898.894653 
-116.857330 -327.616150 -42.889091 
-11.663833 -316.170532 -362.748718 
118.749359 -359.229553 -503.393372 
-246.391220 -347.157715 -1244.036011 
-66.999489 -235.839417 -325.960358 
55.778980 -178.732193 -350.022339 
29.376125 -166.427292 -948.566956 
79.842728 -240.820404 -432.755371 
33.583740 -128.248062 -943.548645 
49.034172 -133.579468 -367.145142 
-66.544922 -460.916565 -500.687744 
35.615150 -146.384048 -912.784302 
76.756172 -313.803162 -384.910950 
-106.987442 -287.314362 -727.451965 
-22.928825 -183.452896 -419.724091 
-115.283112 -245.103180 -90.533928 
48.893276 -290.686340 -313.572601 
-99.528160 -468.849457 -896.686279 
-158.630966 -292.958588 -90.163261 
-86.335350 -182.065369 -593.176636 
-139.907578 -225.235474 -580.784607 
-131.268234 -263.116302 -81.544983 
-106.896332 -297.611603 -420.947144 
-64.556702 -224.089691 -828.613770 
97.467300 -324.143738 -527.220276 
-86.403442 -282.515839 -352.540619 
-112.587410 -292.460388 -428.202271 
50.970837 -136.668533 -550.166260 
-163.455261 -296.526947 -51.041733 
-180.132446 -321.369385 -1251.427612 
-90.699066 -254.488220 -733.036987 
-131.142075 -280.824524 -582.010864 
-7.667344 -212.289856 -322.410736 
-32.077839 -210.273041 -185.504593 
28.974056 -157.663193 -442.166382 
11.966703 -109.298264 -529.457092 
4.030785 -139.760483 -892.682068 
-96.452576 -528.631836 -811.251465 
-6.930758 -141.136307 -900.234863 
-75.588120 -542.127136 -777.362671 
-1.048380 -325.797363 -445.571320 
-15.210009 -80.075729 -717.147827 
-75.090683 -247.946320 -54.012218 
2.252421 -67.854652 -608.943237 
-99.103905 -216.298279 -402.318573 
-111.747932 -393.244263 -61.680206 
-124.112396 -310.532776 -386.407593 
-95.075760 -270.545929 -363.746216 
54.297943 -138.009766 -504.377441 
-106.317207 -209.098633 -363.977325 
-61.496174 -214.590118 -886.843201 
86.034904 -243.878235 -583.809509 
39.969772 -249.545700 -301.659149 
-119.505775 -270.435181 -2.328063 
73.543663 -481.208313 -972.773926 
0.885474 -265.206909 -648.878906 
-5.373513 -113.000740 -909.582947 
-88.661415 -204.871033 -365.058960 
55.641533 -167.204483 -353.549133 
10.423196 -87.008087 -684.246216 
-84.892151 -373.950836 -41.301060 
80.894310 -284.283813 -533.137512 
-50.919498 -458.308105 -490.193085 
80.112953 -356.730194 -753.418579 
-7.414773 -126.216217 -894.187561 
48.108723 -298.706909 -324.747589 
-105.466721 -276.491577 -82.426781 
50.409058 -498.230774 -412.349121 
-139.504227 -315.100189 -588.951416 
-16.823383 -216.482483 -290.093903 
25.369156 -202.521835 -950.947266 
-57.729614 -171.628403 -355.429352 
-87.420403 -468.127441 -598.004639 
-5.305667 -150.536514 -883.697815 
36.576450 -121.663727 -720.064148 
-180.947693 -314.006439 -37.596794 
65.576828 -302.465027 -321.449829 
-19.542986 -236.805222 -297.325653 
77.281517 -224.872543 -912.563599 
-42.719177 -225.273605 -954.679565 
-279.161011 -408.405579 -1144.593018 
-70.521790 -248.129089 -722.150757 
89.979401 -251.904007 -322.191925 
107.859406 -321.156738 -526.173340 
3.334671 -152.748795 -478.504211 
61.447701 -219.193115 -912.644592 
70.084259 -204.110001 -965.396118 
-101.288757 -375.337585 -10.346627 
-85.673218 -258.941772 -98.079773 
-140.707001 -262.206299 -557.863831 
-106.085083 -363.191223 -12.545891 
-89.455154 -201.383347 -531.832764 
-21.637646 -114.804001 -628.631836 
65.112350 -245.341812 -353.332397 
-93.122246 -259.738831 -23.746094 
-17.270285 -227.112091 -332.269104 
68.625000 -330.160583 -391.838440 
-115.900665 -330.990997 5.622335 
-51.999115 -132.986511 -390.036865 
90.520119 -533.162476 -973.381409 
-65.014656 -272.206940 -715.103760 
-153.516174 -355.056366 -588.847656 
116.891220 -300.196228 -558.818787 
-0.561406 -87.574936 -761.162109 
-81.744446 -432.190826 -886.723511 
90.104385 -551.579041 -919.463318 
34.967308 -312.653839 -335.136230 
37.066410 -161.210281 -853.050903 
62.466362 -331.153595 -322.609436 
76.906631 -318.411560 -360.898743 
33.867744 -235.592545 -990.760071 
-2.276927 -315.844208 -444.553741 
-81.713837 -286.410645 -372.501160 
-62.066177 -248.310471 -244.064362 
-131.784882 -270.377014 -566.181030 
2.921935 -67.673889 -668.526611 
-60.944725 -270.198334 -57.620834 
66.883766 -223.456528 -369.313965 
2.367000 -141.618973 -473.131836 
81.395119 -351.205414 -763.861023 
-78.987915 -229.427338 -68.217873 
103.801910 -358.281708 -505.376221 
84.181694 -408.004456 -491.002930 
-60.160698 -170.549530 -378.461731 
-15.730978 -137.378479 -505.698212 
-53.237610 -120.141182 -399.942261 
-140.052933 -364.988647 -59.014709 
-129.087021 -333.251709 -75.208229 
-12.757062 -111.140053 -566.121399 
-83.561325 -286.675232 -1213.706299 
7.923438 -144.524887 -502.731567 
-18.363556 -172.876419 -409.030212 
19.450575 -168.630447 -949.921936 
86.560020 -308.889648 -770.248474 
33.040817 -121.877853 -916.255249 
-70.517975 -250.469772 -117.968597 
93.774780 -323.716461 -419.228882 
-92.989891 -319.190247 -377.632019 
100.982437 -286.834106 -485.612762 
-64.961182 -287.044983 -692.237732 
-56.468384 -222.325195 -915.427368 
20.904165 -134.339111 -850.174316 
-78.737534 -221.975739 -379.448608 
-175.750870 -312.535339 -68.555717 
17.462526 -265.161255 -290.903656 
69.678123 -554.246643 -916.594849 
14.324155 -218.048080 -356.030609 
-142.357285 -292.430206 -596.460266 
4.594082 -190.716568 -396.997559 
-117.995773 -368.952393 14.407898 
-60.854504 -338.410980 -54.638073 
-89.911362 -360.235138 -805.151794 
-104.467514 -327.605133 -27.097889 
-14.550787 -123.010132 -862.570801 
-102.912941 -497.226410 -845.780884 
-88.289803 -305.928040 -737.343018 
6.457232 -112.264786 -658.656616 
81.928154 -479.103882 -439.589905 
-18.820160 -122.604752 -814.239197 
-123.943916 -295.477936 -424.427856 
-81.927132 -422.820892 -880.828979 
-3.816926 -127.826706 -583.655518 
-3.244178 -126.524765 -472.009277 
0.162962 -99.588478 -701.143555 
-66.624435 -234.450546 -176.108627 
-143.767883 -462.721497 -564.137756 
-26.126335 -117.649826 -739.135864 
-2.387633 -99.002457 -484.948578 
61.171482 -345.856720 -746.505493 
31.422173 -138.013641 -825.933472 
-114.884735 -407.768250 -10.442247 
-93.365334 -493.712097 -845.938049 
-86.540115 -351.382599 -783.365967 
77.705399 -435.889069 -1020.709656 
-20.195704 -112.048515 -764.656616 
22.784828 -242.976791 -980.985840 
73.625046 -339.364075 -330.444580 
-267.380310 -380.197021 -1220.667236 
-82.136871 -455.635437 -892.580688 
-81.731255 -381.187622 -845.858276 
-16.622503 -232.933929 -931.650574 
-2.710472 -85.027779 -726.526611 
9.944042 -101.256149 -758.460571 
-30.366280 -199.725906 -376.441193 
82.182274 -191.991364 -514.906921 
-62.676167 -219.900711 -145.552841 
-114.596977 -523.412964 -750.153259 
84.041443 -492.135071 -408.938721 
7.273606 -74.280701 -749.272461 
-143.463547 -269.448700 -46.839836 
36.483540 -114.865555 -940.052246 
-257.525452 -365.814148 -1231.875610 
-92.676422 -463.590027 -909.294556 
-40.252403 -253.429840 -279.554901 
-105.680786 -367.121643 -816.440430 
83.962425 -262.820953 -846.619385 
-95.522308 -340.587799 -17.182726 
82.347527 -183.290009 -419.971954 
-96.481689 -479.381592 -540.325439 
-151.578857 -449.768127 -598.552856 
129.962585 -306.086914 -529.749207 
1.766845 -205.281570 -1036.679932 
12.228344 -104.326950 -813.672546 
62.547836 -475.980103 -454.213165 
-39.798058 -155.438248 -888.431702 
-101.719727 -274.767639 -92.697456 
-67.634132 -252.322952 -691.845642 
-40.188881 -215.904327 -338.497620 
-77.406281 -278.577240 -696.255249 
-30.455624 -233.055664 -333.539734 
18.572670 -193.152328 -969.951721 
-44.627182 -126.008202 -503.595612 
-2.470694 -243.303986 -312.955139 
-7.824999 -125.631516 -407.314636 
-59.649975 -193.592773 -328.678894 
-75.096359 -242.842728 -807.468994 
-274.020020 -390.900543 -1197.316040 
-65.603378 -150.345886 -371.239380 
-87.801003 -252.346252 -525.965088 
101.256485 -445.142578 -1004.267822 
52.838623 -166.889893 -373.531647 
-15.854650 -212.964371 -345.335571 
-60.345581 -236.615433 -103.271278 
-124.934494 -440.768616 -583.118469 
28.593801 -137.047699 -924.894043 
84.817184 -281.830902 -812.352295 
102.727676 -415.895691 -974.978394 
59.902134 -200.033005 -365.111298 
-92.424416 -217.548889 -65.082291 
-125.756180 -258.033020 -362.732513 
-101.297318 -409.532715 -69.640961 
-14.852395 -95.895569 -573.483582 
104.643646 -285.506317 -500.716797 
36.167629 -497.943726 -457.959015 
73.405830 -340.267639 -391.453064 
-53.533585 -538.619202 -780.383545 
-82.604057 -539.576904 -805.509033 
-138.602707 -308.618286 19.231947 
18.439991 -73.123497 -660.054688 
-181.288849 -309.839691 -60.108662 
-124.128494 -365.473358 -604.707275 
-0.554721 -276.146484 -974.737610 
-77.068298 -243.961548 -107.479141 
-33.978836 -185.257874 -912.673889 
-169.582718 -323.713196 -1256.970093 
-157.721008 -292.237366 -60.594524 
30.804516 -117.211006 -556.046021 
-50.178421 -212.513290 -151.473389 
97.329987 -290.716949 -472.282166 
92.924995 -314.085663 -783.902283 
34.901123 -239.114868 -368.055359 
91.644585 -236.299744 -545.038086 
-83.931839 -443.801880 -914.337402 
-29.840761 -120.086975 -665.222656 
-64.299477 -241.086761 -119.401962 
57.066132 -282.569031 -338.009216 
67.270546 -499.314148 -957.018860 
42.720650 -202.816284 -323.774384 
-35.191277 -218.435333 -976.059509 
-76.479652 -182.846985 -480.996368 
-125.998276 -238.923843 -27.695415 
-0.580353 -84.683914 -607.744263 
-84.756149 -288.689331 -360.574829 
-47.094788 -198.109314 -961.137939 
56.649582 -353.451691 -757.975464 
-45.490555 -190.302032 -387.558655 
-81.477715 -276.032928 -719.170593 
-57.507660 -262.183838 -65.660866 
-108.663193 -219.943481 -58.281799 
-21.922028 -88.739555 -795.301331 
-21.061600 -111.164536 -641.770081 
2.089040 -130.316086 -898.689819 
-101.124817 -352.684662 -16.405243 
-9.890768 -84.698784 -685.148682 
-70.630234 -464.646667 -877.267578 
-17.519188 -76.490189 -613.454163 
-82.639404 -319.043030 -378.344055 
55.735458 -270.779144 -328.270172 
16.949142 -266.729980 -322.479248 
97.671661 -318.967773 -443.414368 
65.721573 -270.039001 -840.559448 
73.415833 -408.115479 -939.152893 
-107.329094 -392.707397 -80.796371 
13.490002 -130.205429 -866.619751 
103.037331 -542.727783 -362.709991 
22.277357 -268.850891 -330.853027 
-42.551785 -93.762947 -933.351196 
-63.734131 -253.369781 -58.745316 
-68.845009 -481.064514 -880.708008 
-139.225525 -323.699371 -597.640869 
-86.893616 -214.107620 -933.819458 
-110.598587 -456.415588 -489.319641 
92.639870 -377.392212 -506.021301 
-76.205933 -276.499786 -1188.680054 
-123.877289 -386.213013 -66.235550 
120.445129 -285.330475 -547.686523 
-40.368019 -235.000046 -222.261826 
-1.348134 -60.879192 -721.775940 
-18.938839 -141.480530 -879.543030 
103.826996 -421.897156 -471.538879 
-122.135818 -459.669434 -492.606934 
83.998215 -381.314941 -781.285583 
-7.899855 -179.798630 -419.028992 
-38.320747 -257.583557 -260.505432 
-81.421577 -205.331177 -468.186310 
82.277580 -410.469910 -932.075500 
106.502869 -288.116150 -524.305359 
-47.574272 -235.219727 -146.678635 
-85.158279 -237.786316 -50.445114 
-188.252472 -317.345642 -1259.354004 
-87.722397 -241.106339 -390.120361 
-29.576445 -118.962265 -691.703186 
-118.775772 -265.148376 -583.479980 
-0.473761 -227.055878 -1039.718872 
78.313789 -418.525238 -968.946167 
-121.443054 -336.721649 -16.690331 
5.718960 -96.980606 -550.180176 
16.213877 -168.791748 -935.077576 
-15.721369 -182.033325 -405.733154 
-45.914345 -145.720673 -941.495117 
-270.440979 -385.028534 -1211.785156 
-110.192314 -472.639526 -549.640869 
-133.753052 -281.785248 -481.086670 
-72.050652 -534.550476 -802.587891 
-60.969627 -197.809601 -948.358032 
-267.263672 -384.031799 -1200.874268 
-144.887222 -371.976593 -595.673584 
-105.110847 -254.894287 -22.062355 
70.711182 -525.095825 -382.494141 
82.769646 -326.325806 -364.600311 
-81.073303 -378.676025 -49.585548 
17.551884 -115.142090 -555.645630 
-54.053059 -139.227097 -370.679016 
75.289719 -198.488480 -389.948944 
-95.876122 -281.847809 -377.726379 
-128.324463 -252.843307 -547.967041 
-0.469772 -172.358337 -971.432556 
9.006259 -95.147484 -750.127625 
32.431816 -124.652138 -651.302246 
-30.281313 -238.678635 -177.998108 
-2.545001 -80.629967 -447.178101 
-29.217964 -122.847404 -749.421875 
93.736000 -295.465637 -514.656128 
-117.517365 -322.039673 1.425101 
-57.585583 -85.208122 -918.988281 
-133.489929 -263.732727 -96.605186 
51.385094 -202.457977 -343.576904 
-82.945267 -284.027985 -36.989655 
115.160919 -266.177612 -556.969604 
-17.144005 -127.561646 -543.634155 
55.630386 -507.041382 -957.076660 
-75.547119 -468.822632 -518.299011 
-8.871050 -258.393250 -224.558044 
-6.268609 -117.086983 -589.927734 
4.873685 -196.589050 -342.245361 
-37.209061 -114.393814 -922.748535 
-87.650230 -409.635620 -857.752075 
-135.993530 -328.567871 -586.829041 
-6.149908 -311.782227 -372.786011 
-56.085175 -215.185486 -163.599991 
38.170109 -269.349060 -358.487854 
71.451996 -199.238281 -380.812714 
91.160736 -507.611938 -979.250061 
70.034637 -333.255951 -747.422180 
-59.572586 -262.896637 -707.664795 
-7.655804 -230.547791 -935.589966 
-92.680374 -283.871185 -367.787506 
-134.944473 -262.259247 -574.221313 
-74.784561 -234.066574 -87.699295 
-75.857330 -344.596344 -16.463627 
89.280098 -453.159943 -471.751587 
16.139605 -93.117546 -806.425720 
-72.093796 -373.050354 -807.253906 
-153.235443 -348.146637 -7.157185 
47.758450 -530.460022 -338.779877 
-75.977852 -461.757019 -900.823364 
6.190018 -86.403961 -634.257324 
-125.691910 -468.646545 -510.021057 
72.613983 -284.138977 -839.803650 
108.546799 -356.383606 -783.043457 
86.929504 -378.558258 -830.057739 
-24.627165 -223.394226 -220.756134 
21.141661 -148.992188 -437.813538 
-97.337990 -478.002899 -550.760620 
-119.836975 -302.080505 -368.381531 
-39.258064 -225.490234 -178.071472 
-39.195759 -244.610107 -89.234863 
3.303522 -143.021713 -906.903748 
-57.998978 -132.591843 -577.365112 
-9.883664 -248.491638 -1089.735107 
-122.004242 -332.819122 -378.116669 
16.321320 -215.502792 -1024.719604 
-7.278111 -219.432373 -922.336853 
-118.997803 -302.216766 -1230.810791 
-138.258652 -429.854980 -594.140747 
-5.753962 -88.635483 -778.822754 
-106.764008 -421.416565 -928.571777 
-79.511154 -239.649490 -738.574829 
-44.041996 -131.089951 -377.528198 
-80.012024 -282.932007 -1197.582031 
13.521933 -102.612778 -667.254822 
-32.953121 -183.784882 -923.307251 
-160.570099 -320.131348 2.976246 
-81.252663 -374.012451 -797.821899 
93.099319 -470.739929 -984.081543 
72.583916 -400.328369 -833.262634 
6.811920 -161.753922 -419.149902 
75.258598 -400.622009 -956.983276 
74.597336 -224.929108 -333.808502 
65.862457 -527.361816 -950.898926 
-146.936249 -326.258301 15.333244 
-67.655891 -283.997589 -714.879028 
-10.116612 -138.426086 -371.853241 
-33.154152 -266.255920 -981.098511 
-138.815964 -253.839035 -56.788788 
-92.379433 -303.206482 -728.510620 
113.143669 -417.660339 -476.615112 
84.188675 -420.051270 -495.724792 
-73.506569 -326.824768 13.465258 
-111.750580 -354.376373 -13.968121 
46.813972 -275.491333 -310.553375 
31.018608 -146.655899 -329.329346 
54.735840 -227.070496 -348.330627 
-88.359383 -275.245056 -27.736010 
80.075325 -505.585541 -407.123474 
-36.802261 -266.825684 -1148.582275 
-94.169571 -445.992310 -922.442688 
-86.506271 -400.852722 -55.302711 
-65.178322 -245.640213 -226.081802 
-70.204453 -238.366760 -817.855652 
-207.829895 -343.366882 -1252.976807 
-130.305878 -372.385193 20.076235 
-60.852890 -247.506561 -197.520416 
6.994241 -271.497345 -643.070496 
-69.352631 -265.562103 -403.558350 
-118.661659 -250.121017 -25.351734 
67.744476 -534.821472 -957.103210 
-94.341743 -465.655487 -591.260498 
101.555725 -337.846191 -738.792847 
5.464875 -62.653759 -622.663696 
-86.092026 -220.623627 -504.427490 
38.912426 -230.160370 -369.472290 
-27.782141 -179.878281 -400.390625 
-86.574966 -436.100891 -923.262085 
-28.931709 -218.810410 -191.766510 
80.588608 -450.915955 -1004.412109 
96.778679 -327.413422 -767.401489 
2.268766 -118.835342 -527.988281 
93.967339 -300.442871 -444.070557 
49.764465 -524.021118 -347.967834 
-5.116291 -314.583557 -540.154663 
-16.539671 -114.511391 -823.357422 
-41.984921 -161.228699 -429.371643 
-81.043015 -364.351562 -36.931038 
66.510994 -244.421814 -364.186707 
59.057182 -241.717651 -344.963257 
-63.434765 -202.959015 -423.140289 
19.086817 -158.243256 -940.843445 
-33.210457 -203.689423 -964.294312 
80.473495 -230.261841 -375.673431 
21.919182 -139.651001 -538.113525 
-5.221072 -320.655609 -402.832306 
-5.725363 -101.546562 -634.114014 
-64.715714 -167.330673 -390.316101 
